0.002 0.00015848932 0.0099026333 0 0 0
0.002 0.00019952623 0.010601877 0 0 0
0.002 0.0001 0.011298809 0 0 0
0.002 0.00025118864 0.011148087 0 0 0
0.002 0.00031622777 0.010021039 0 0 0
0.002 0.001 0.0099722992 0 0 0
0.002 0.0031622777 0.0092602861 0 0 0
0.002 0.01 0.010912918 0 0 0
0.002 0.031622777 0.010051361 0 0 0
0.002 0.1 0.0098012071 0 0 0
0.002 1.2589254e-05 0.0097485322 0 0 0
0.002 1.2589254e-06 0.010595806 0 0 0
0.002 1.2589254e-07 0.010694298 0 0 0
0.002 1.2589254e-08 0.0090858725 0 0 0
0.002 1.2589254e-09 0.015183403 0 0 0
0.002 1.5848932e-05 0.011345398 0 0 0
0.002 1.5848932e-06 0.0098402344 0 0 0
0.002 1.5848932e-07 0.0094820893 0 0 0
0.002 1.5848932e-08 0.010906086 0 0 0
0.002 1.5848932e-09 0.0094894562 0 0 0
0.002 1.9952623e-05 0.0092761306 0 0 0
0.002 1.9952623e-06 0.0092966631 0 0 0
0.002 1.9952623e-07 0.0096313518 0 0 0
0.002 1.9952623e-08 0.0098762693 0 0 0
0.002 1.9952623e-09 0.009920745 0 0 0
0.002 1e-05 0.0090570652 0 0 0
0.002 1e-06 0.0094245482 0 0 0
0.002 1e-07 0.0090314717 0 0 0
0.002 1e-08 0.0089870187 0 0 0
0.002 1e-09 0.0091605596 0 0 0
0.002 2.5118864e-05 0.0092145434 0 0 0
0.002 2.5118864e-06 0.010504202 0 0 0
0.002 2.5118864e-07 0.010518158 0 0 0
0.002 2.5118864e-08 0.0099667774 0 0 0
0.002 2.5118864e-09 0.010116645 0 0 0
0.002 3.1622777e-05 0.010928962 0 0 0
0.002 3.1622777e-06 0.01145989 0 0 0
0.002 3.1622777e-07 0.010851511 0 0 0
0.002 3.1622777e-08 0.011266361 0 0 0
0.002 3.1622777e-09 0.010126162 0 0 0
0.002 3.9810717e-05 0.010027145 0 0 0
0.002 3.9810717e-06 0.010621819 0 0 0
0.002 3.9810717e-07 0.01020915 0 0 0
0.002 3.9810717e-08 0.010343493 0 0 0
0.002 3.9810717e-09 0.010493759 0 0 0
0.002 5.0118723e-05 0.010628287 0 0 0
0.002 5.0118723e-06 0.010628287 0 0 0
0.002 5.0118723e-07 0.010914503 0 0 0
0.002 5.0118723e-08 0.010264092 0 0 0
0.002 5.0118723e-09 0.0098109861 0 0 0
0.002 6.3095734e-05 0.0096052994 0 0 0
0.002 6.3095734e-06 0.011114816 0 0 0
0.002 6.3095734e-07 0.0094878766 0 0 0
0.002 6.3095734e-08 0.01030985 0 0 0
0.002 6.3095734e-09 0.010622994 0 0 0
0.002 7.9432823e-05 0.010116646 0 0 0
0.002 7.9432823e-06 0.0097844113 0 0 0
0.002 7.9432823e-07 0.010162938 0 0 0
0.002 7.9432823e-08 0.011485324 0 0 0
0.002 7.9432823e-09 0.010139066 0 0 0
0.005 0.00012589254 0.0095587806 0 0 0
0.005 0.00015848932 0.0093744574 0 0 0
0.005 0.00019952623 0.0084208097 0 0 0
0.005 0.0001 0.0082123649 0 0 0
0.005 0.00025118864 0.0073093525 0 0 0
0.005 0.00031622777 0.0083140878 0 0 0
0.005 0.001 0.0087846038 0 0 0
0.005 0.0031622777 0.0091345321 0 0 0
0.005 0.01 0.0091588893 0 0 0
0.005 0.031622777 0.0088098117 0 0 0
0.005 0.1 0.0091589861 0 0 0
0.005 1.2589254e-05 0.0084858282 0 0 0
0.005 1.2589254e-06 0.0090434782 0 0 0
0.005 1.2589254e-07 0.0079598547 0 0 0
0.005 1.2589254e-08 0.0085128561 0 0 0
0.005 1.2589254e-09 0.010782935 0 0 0
0.005 1.5848932e-05 0.0086620084 0 0 0
0.005 1.5848932e-06 0.0087470312 0 0 0
0.005 1.5848932e-07 0.012186548 0 0 0
0.005 1.5848932e-08 0.0099113199 0 0 0
0.005 1.5848932e-09 0.0076424271 0 0 0
0.005 1.9952623e-05 0.0089234311 0 0 0
0.005 1.9952623e-06 0.0082625393 0 0 0
0.005 1.9952623e-07 0.0082788166 0 0 0
0.005 1.9952623e-08 0.0079300764 0 0 0
0.005 1.9952623e-09 0.008868023 0 0 0
0.005 1e-05 0.0089553964 0 0 0
0.005 1e-06 0.0078238193 0 0 0
0.005 1e-07 0.0085958232 0 0 0
0.005 1e-08 0.0090281772 0 0 0
0.005 1e-09 0.0072337963 0 0 0
0.005 2.5118864e-05 0.009243212 0 0 0
0.005 2.5118864e-06 0.009863867 0 0 0
0.005 2.5118864e-07 0.010175763 0 0 0
0.005 2.5118864e-08 0.0082099907 0 0 0
0.005 2.5118864e-09 0.0090048489 0 0 0
0.005 3.1622777e-05 0.009732924 0 0 0
0.005 3.1622777e-06 0.0077667652 0 0 0
0.005 3.1622777e-07 0.0088546789 0 0 0
0.005 3.1622777e-08 0.0074579406 0 0 0
0.005 3.1622777e-09 0.0087424733 0 0 0
0.005 3.9810717e-05 0.007639331 0 0 0
0.005 3.9810717e-06 0.0075140165 0 0 0
0.005 3.9810717e-07 0.0096025141 0 0 0
0.005 3.9810717e-08 0.0075608912 0 0 0
0.005 3.9810717e-09 0.0083362279 0 0 0
0.005 5.0118723e-05 0.0084828899 0 0 0
0.005 5.0118723e-06 0.012262658 0 0 0
0.005 5.0118723e-07 0.0094432536 0 0 0
0.005 5.0118723e-08 0.0084642588 0 0 0
0.005 5.0118723e-09 0.0074821646 0 0 0
0.005 6.3095734e-05 0.0089628681 0 0 0
0.005 6.3095734e-06 0.0081762829 0 0 0
0.005 6.3095734e-07 0.010452761 0 0 0
0.005 6.3095734e-08 0.0071300215 0 0 0
0.005 6.3095734e-09 0.0090225563 0 0 0
0.005 7.9432823e-05 0.0084799906 0 0 0
0.005 7.9432823e-06 0.0091451061 0 0 0
0.005 7.9432823e-07 0.011271133 0 0 0
0.005 7.9432823e-08 0.0076467545 0 0 0
0.005 7.9432823e-09 0.0087648484 0 0 0
0.01 0.00012589254 0.0079990658 0 0 0
0.01 0.00015848932 0.0073904628 0 0 0
0.01 0.00019952623 0.0076407664 0 0 0
0.01 0.0001 0.0065824273 0 0 0
0.01 0.00025118864 0.0079100017 0 0 0
0.01 0.00031622777 0.0083529412 0 0 0
0.01 0.001 0.0072688903 0 0 0
0.01 0.0031622777 0.0079341757 0 0 0
0.01 0.01 0.0062079062 0 0 0
0.01 0.031622777 0.0064923567 0 0 0
0.01 0.1 0.0077215559 0 0 0
0.01 1.2589254e-05 0.007378345 0 0 0
0.01 1.2589254e-06 0.008868789 0 0 0
0.01 1.2589254e-07 0.0082273311 0 0 0
0.01 1.2589254e-08 0.006916359 0 0 0
0.01 1.2589254e-09 0.0080140392 0 0 0
0.01 1.5848932e-05 0.0065305642 0 0 0
0.01 1.5848932e-06 0.0065068293 0 0 0
0.01 1.5848932e-07 0.0076134699 0 0 0
0.01 1.5848932e-08 0.0080668732 0 0 0
0.01 1.5848932e-09 0.0084407971 0 0 0
0.01 1.9952623e-05 0.0066946093 0 0 0
0.01 1.9952623e-06 0.007556675 0 0 0
0.01 1.9952623e-07 0.0078832117 0 0 0
0.01 1.9952623e-08 0.0075478322 0 0 0
0.01 1.9952623e-09 0.0069484993 0 0 0
0.01 1e-05 0.0080597718 0 0 0
0.01 1e-06 0.0077031635 0 0 0
0.01 1e-07 0.0080777334 0 0 0
0.01 1e-08 0.007491952 0 0 0
0.01 1e-09 0.0077528486 0 0 0
0.01 2.5118864e-05 0.0084452524 0 0 0
0.01 2.5118864e-06 0.00817757 0 0 0
0.01 2.5118864e-07 0.0068941342 0 0 0
0.01 2.5118864e-08 0.0081104908 0 0 0
0.01 2.5118864e-09 0.0099105633 0 0 0
0.01 3.1622777e-05 0.0082223962 0 0 0
0.01 3.1622777e-06 0.0087374655 0 0 0
0.01 3.1622777e-07 0.0070555033 0 0 0
0.01 3.1622777e-08 0.0027767355 0 0 0
0.01 3.1622777e-09 0.0075562324 0 0 0
0.01 3.9810717e-05 0.0079263317 0 0 0
0.01 3.9810717e-06 0.0073681108 0 0 0
0.01 3.9810717e-07 0.0071554252 0 0 0
0.01 3.9810717e-08 0.0091015853 0 0 0
0.01 3.9810717e-09 0.0085862149 0 0 0
0.01 5.0118723e-05 0.0080248359 0 0 0
0.01 5.0118723e-06 0.0075373925 0 0 0
0.01 5.0118723e-07 0.0073490504 0 0 0
0.01 5.0118723e-08 0.0074561145 0 0 0
0.01 5.0118723e-09 0.0064353829 0 0 0
0.01 6.3095734e-05 0.007762797 0 0 0
0.01 6.3095734e-06 0.010871278 0 0 0
0.01 6.3095734e-07 0.0076438324 0 0 0
0.01 6.3095734e-08 0.0081424637 0 0 0
0.01 6.3095734e-09 0.0078339668 0 0 0
0.01 7.9432823e-05 0.0080243659 0 0 0
0.01 7.9432823e-06 0.0086509234 0 0 0
0.01 7.9432823e-07 0.0094747924 0 0 0
0.01 7.9432823e-08 0.0083920189 0 0 0
0.01 7.9432823e-09 0.0073766174 0 0 0
0.05 0.00012589254 0.0014496115 0 0 0
0.05 0.00015848932 0.0012708682 0 0 0
0.05 0.00019952623 0.0013967293 0 0 0
0.05 0.0001 0.0016261107 0 0 0
0.05 0.00025118864 0.0018036888 0 0 0
0.05 0.00031622777 0.0019648636 0 0 0
0.05 0.001 0.0015548472 0 0 0
0.05 0.0031622777 0.0012763242 0 0 0
0.05 0.01 0.0012121212 0 0 0
0.05 0.031622777 0.0015734266 0 0 0
0.05 0.1 0.0017973098 0 0 0
0.05 1.2589254e-05 0.0016184036 0 0 0
0.05 1.2589254e-06 0.0013885675 0 0 0
0.05 1.2589254e-07 0.00093240093 0 0 0
0.05 1.2589254e-08 0.0016254499 0 0 0
0.05 1.2589254e-09 0.0016809645 0 0 0
0.05 1.5848932e-05 0.0020879248 0 0 0
0.05 1.5848932e-06 0.0013368984 0 0 0
0.05 1.5848932e-07 0.0019131544 0 0 0
0.05 1.5848932e-08 0.00092942203 0 0 0
0.05 1.5848932e-09 0.0020311049 0 0 0
0.05 1.9952623e-05 0.0016808671 0 0 0
0.05 1.9952623e-06 0.0015652174 0 0 0
0.05 1.9952623e-07 0.0024490441 0 0 0
0.05 1.9952623e-08 0.0017445918 0 0 0
0.05 1.9952623e-09 0.0019113814 0 0 0
0.05 1e-05 0.0017385257 0 0 0
0.05 1e-06 0.0017761989 0 0 0
0.05 1e-07 0.0019160425 0 0 0
0.05 1e-08 0.0017367142 0 0 0
0.05 1e-09 0.0014495275 0 0 0
0.05 2.5118864e-05 0.0019730734 0 0 0
0.05 2.5118864e-06 0.001386642 0 0 0
0.05 2.5118864e-07 0.0016877146 0 0 0
0.05 2.5118864e-08 0.0020851434 0 0 0
0.05 2.5118864e-09 0.0015092587 0 0 0
0.05 3.1622777e-05 0.0011010025 0 0 0
0.05 3.1622777e-06 0.0018575492 0 0 0
0.05 3.1622777e-07 0.0012803352 0 0 0
0.05 3.1622777e-08 0.0013411079 0 0 0
0.05 3.1622777e-09 0.0019697584 0 0 0
0.05 3.9810717e-05 0.0018483221 0 0 0
0.05 3.9810717e-06 0.0017379215 0 0 0
0.05 3.9810717e-07 0.0011986815 0 0 0
0.05 3.9810717e-08 0.0014545031 0 0 0
0.05 3.9810717e-09 0.0023747466 0 0 0
0.05 5.0118723e-05 0.0015762741 0 0 0
0.05 5.0118723e-06 0.0014004785 0 0 0
0.05 5.0118723e-07 0.0013348036 0 0 0
0.05 5.0118723e-08 0.0013938092 0 0 0
0.05 5.0118723e-09 0.0017376195 0 0 0
0.05 6.3095734e-05 0.0015739769 0 0 0
0.05 6.3095734e-06 0.0018569024 0 0 0
0.05 6.3095734e-07 0.0013920306 0 0 0
0.05 6.3095734e-08 0.0012767686 0 0 0
0.05 6.3095734e-09 0.002488858 0 0 0
0.05 7.9432823e-05 0.0019188278 0 0 0
0.05 7.9432823e-06 0.0015661253 0 0 0
0.05 7.9432823e-07 0.0016260163 0 0 0
0.05 7.9432823e-08 0.0018512091 0 0 0
0.05 7.9432823e-09 0.0026196298 0 0 0
0.25 0.00012589254 0.00034911326 0 0 0
0.25 0.00015848932 0.00014033118 0 0 0
0.25 0.00019952623 0.00042155555 0 0 0
0.25 0.0001 6.9920292e-05 0 0 0
0.25 0.00025118864 0.00021026072 0 0 0
0.25 0.00031622777 0.00028030834 0 0 0
0.25 0.25 0.00028036728 0 0 0
0.25 1.1220185e-05 0.00035065236 0 0 0
0.25 1.1220185e-05 0.00035065236 0 0 0
0.25 1.2589254e-05 0.00027985727 0 0 0
0.25 1.2589254e-06 6.9812902e-05 0 0 0
0.25 1.2589254e-07 0.00035014005 0 0 0
0.25 1.2589254e-08 0.0002100252 0 0 0
0.25 1.2589254e-09 0.00041958042 0 0 0
0.25 1.4125375e-05 0.00027928133 0 0 0
0.25 1.4125375e-05 0.00027928133 0 0 0
0.25 1.5848932e-05 0.00021026072 0 0 0
0.25 1.5848932e-06 0.00027946622 0 0 0
0.25 1.5848932e-07 7.005254e-05 0 0 0
0.25 1.5848932e-08 0.00013986014 0 0 0
0.25 1.5848932e-09 7.0057448e-05 0 0 0
0.25 1.7782794e-05 0.00028042625 0 0 0
0.25 1.7782794e-05 0.00028042625 0 0 0
0.25 1.9952623e-05 0.00014019347 0 0 0
0.25 1.9952623e-07 0.00034940601 0 0 0
0.25 1.9952623e-08 0.00028046557 0 0 0
0.25 1.9952623e-09 0.00014012471 0 0 0
0.25 1e-05 0.00013995801 0 0 0
0.25 1e-06 0.0002801709 0 0 0
0.25 1e-07 0.00021027546 0 0 0
0.25 1e-08 0.00035085259 0 0 0
0.25 1e-09 0.00035087719 0 0 0
0.25 2.2387211e-05 0.00027954434 0 0 0
0.25 2.5118864e-05 0.0003498216 0 0 0
0.25 2.5118864e-06 0.00028064267 0 0 0
0.25 2.5118864e-07 0.00027973984 0 0 0
0.25 2.5118864e-08 6.9837281e-05 0 0 0
0.25 2.5118864e-09 0.00041955108 0 0 0
0.25 2.8183829e-05 0.00014006583 0 0 0
0.25 3.1622777e-05 7.0047633e-05 0 0 0
0.25 3.1622777e-06 0.00020992233 0 0 0
0.25 3.1622777e-07 7.0023106e-05 0 0 0
0.25 3.1622777e-09 7.0101648e-05 0 0 0
0.25 3.5481339e-05 0.00027942717 0 0 0
0.25 3.9810717e-05 0.0002101429 0 0 0
0.25 3.9810717e-06 0.00014018364 0 0 0
0.25 3.9810717e-07 0.00020970222 0 0 0
0.25 3.9810717e-08 0.00014019347 0 0 0
0.25 4.4668359e-05 7.0214858e-05 0 0 0
0.25 5.0118723e-05 0.00063224445 0 0 0
0.25 5.0118723e-06 0.00010520779 0 0 0
0.25 5.0118723e-07 7.0072173e-05 0 0 0
0.25 5.0118723e-08 0.00014016399 0 0 0
0.25 5.0118723e-09 0.00042117085 0 0 0
0.25 5.6234133e-05 0.00014010508 0 0 0
0.25 6.3095734e-05 0.00021026072 0 0 0
0.25 6.3095734e-06 0.00014016399 0 0 0
0.25 6.3095734e-07 0.00034974818 0 0 0
0.25 6.3095734e-08 6.9949635e-05 0 0 0
0.25 6.3095734e-09 0.00014010508 0 0 0
0.25 7.0794578e-05 0.00027964206 0 0 0
0.25 7.9432823e-05 0.00020987827 0 0 0
0.25 7.9432823e-06 0.00013985036 0 0 0
0.25 7.9432823e-07 0.00027952481 0 0 0
0.25 7.9432823e-08 0.00042022691 0 0 0
0.25 7.9432823e-09 0.00042066887 0 0 0
0.3 0.00015848932 0.00013892748 0 0 0
0.3 1.2589254e-08 6.9739872e-05 0 0 0
0.3 1.5848932e-08 6.9754465e-05 0 0 0
0.3 1e-07 6.9526523e-05 0 0 0
0.3 2.5118864e-09 6.9720422e-05 0 0 0
0.3 5.0118723e-07 0.00013908206 0 0 0
0.4 0.00012589254 0.016075618 0 0 0
0.4 0.00015848932 0.01555831 0 0 0
0.4 0.00019952623 0.017303185 0 0 0
0.4 0.0001 0.017094017 0 0 0
0.4 0.00025118864 0.016905473 0 0 0
0.4 0.00031622777 0.014976879 0 0 0
0.4 1.2589254e-05 0.015510288 0 0 0
0.4 1.2589254e-06 0.017022743 0 0 0
0.4 1.2589254e-07 0.016979446 0 0 0
0.4 1.2589254e-08 0.016824105 0 0 0
0.4 1.2589254e-09 0.017552313 0 0 0
0.4 1.5848932e-05 0.016939815 0 0 0
0.4 1.5848932e-06 0.016088938 0 0 0
0.4 1.5848932e-07 0.016193495 0 0 0
0.4 1.5848932e-08 0.016549441 0 0 0
0.4 1.5848932e-09 0.015663814 0 0 0
0.4 1.9952623e-05 0.017471454 0 0 0
0.4 1.9952623e-06 0.016872116 0 0 0
0.4 1.9952623e-07 0.017545067 0 0 0
0.4 1.9952623e-08 0.016454389 0 0 0
0.4 1.9952623e-09 0.01576158 0 0 0
0.4 1e-05 0.01577787 0 0 0
0.4 1e-06 0.015604592 0 0 0
0.4 1e-07 0.017427843 0 0 0
0.4 1e-08 0.017545071 0 0 0
0.4 1e-09 0.014900662 0 0 0
0.4 2.5118864e-05 0.018526171 0 0 0
0.4 2.5118864e-06 0.015479234 0 0 0
0.4 2.5118864e-07 0.01679631 0 0 0
0.4 2.5118864e-08 0.016662076 0 0 0
0.4 2.5118864e-09 0.016046832 0 0 0
0.4 3.1622777e-05 0.015659492 0 0 0
0.4 3.1622777e-06 0.017552346 0 0 0
0.4 3.1622777e-07 0.015725222 0 0 0
0.4 3.1622777e-08 0.016101168 0 0 0
0.4 3.1622777e-09 0.014676497 0 0 0
0.4 3.9810717e-05 0.015055249 0 0 0
0.4 3.9810717e-06 0.015154646 0 0 0
0.4 3.9810717e-07 0.015502274 0 0 0
0.4 3.9810717e-08 0.016888399 0 0 0
0.4 3.9810717e-09 0.015324084 0 0 0
0.4 5.0118723e-05 0.017098731 0 0 0
0.4 5.0118723e-06 0.016946817 0 0 0
0.4 5.0118723e-07 0.017162945 0 0 0
0.4 5.0118723e-08 0.017757588 0 0 0
0.4 5.0118723e-09 0.014862726 0 0 0
0.4 6.3095734e-05 0.017001652 0 0 0
0.4 6.3095734e-06 0.016077836 0 0 0
0.4 6.3095734e-07 0.016426254 0 0 0
0.4 6.3095734e-08 0.016672408 0 0 0
0.4 6.3095734e-09 0.016181454 0 0 0
0.4 7.9432823e-05 0.016053466 0 0 0
0.4 7.9432823e-06 0.015036557 0 0 0
0.4 7.9432823e-07 0.016572686 0 0 0
0.4 7.9432823e-08 0.013327823 0 0 0
0.4 7.9432823e-09 0.01618817 0 0 0
0.45 0.00012589254 0.027028881 0 0 0
0.45 0.00015848932 0.029688036 0 0 0
0.45 0.00019952623 0.026997321 0 0 0
0.45 0.0001 0.028316764 0 0 0
0.45 0.00025118864 0.02767692 0 0 0
0.45 0.00031622777 0.027655778 0 0 0
0.45 1.2589254e-05 0.025859112 0 0 0
0.45 1.2589254e-06 0.027123533 0 0 0
0.45 1.2589254e-07 0.027372887 0 0 0
0.45 1.2589254e-08 0.026216716 0 0 0
0.45 1.2589254e-09 0.029452055 0 0 0
0.45 1.5848932e-05 0.029411765 0 0 0
0.45 1.5848932e-06 0.025908872 0 0 0
0.45 1.5848932e-07 0.025296497 0 0 0
0.45 1.5848932e-08 0.02721788 0 0 0
0.45 1.5848932e-09 0.026707861 0 0 0
0.45 1.9952623e-05 0.027030735 0 0 0
0.45 1.9952623e-06 0.024667672 0 0 0
0.45 1.9952623e-07 0.027416929 0 0 0
0.45 1.9952623e-08 0.02759094 0 0 0
0.45 1.9952623e-09 0.028862595 0 0 0
0.45 1e-05 0.02828186 0 0 0
0.45 1e-06 0.02850079 0 0 0
0.45 1e-07 0.028516589 0 0 0
0.45 1e-08 0.029069767 0 0 0
0.45 1e-09 0.028600823 0 0 0
0.45 2.5118864e-05 0.026407847 0 0 0
0.45 2.5118864e-06 0.027737826 0 0 0
0.45 2.5118864e-07 0.027960527 0 0 0
0.45 2.5118864e-08 0.028504865 0 0 0
0.45 2.5118864e-09 0.027501543 0 0 0
0.45 3.1622777e-05 0.029321093 0 0 0
0.45 3.1622777e-06 0.027371887 0 0 0
0.45 3.1622777e-07 0.028276574 0 0 0
0.45 3.1622777e-08 0.029028273 0 0 0
0.45 3.1622777e-09 0.029538757 0 0 0
0.45 3.9810717e-05 0.029526615 0 0 0
0.45 3.9810717e-06 0.028891024 0 0 0
0.45 3.9810717e-07 0.0273794 0 0 0
0.45 3.9810717e-08 0.026476858 0 0 0
0.45 3.9810717e-09 0.027235213 0 0 0
0.45 5.0118723e-05 0.02975536 0 0 0
0.45 5.0118723e-06 0.026991848 0 0 0
0.45 5.0118723e-07 0.026664834 0 0 0
0.45 5.0118723e-08 0.027678571 0 0 0
0.45 5.0118723e-09 0.028207586 0 0 0
0.45 6.3095734e-05 0.028636176 0 0 0
0.45 6.3095734e-06 0.029286694 0 0 0
0.45 6.3095734e-07 0.028148757 0 0 0
0.45 6.3095734e-08 0.027287649 0 0 0
0.45 6.3095734e-09 0.026333837 0 0 0
0.45 7.9432823e-05 0.027936028 0 0 0
0.45 7.9432823e-06 0.029707714 0 0 0
0.45 7.9432823e-07 0.026973369 0 0 0
0.45 7.9432823e-08 0.027097482 0 0 0
0.45 7.9432823e-09 0.027437564 0 0 0
0.5 0.00012589254 0.036710418 0 0 0
0.5 0.00015848932 0.038951311 0 0 0
0.5 0.00019952623 0.038587625 0 0 0
0.5 0.0001 0.038201787 0 0 0
0.5 0.00025118864 0.040785704 0 0 0
0.5 0.00031622777 0.036840314 0 0 0
0.5 1.2589254e-05 0.03647541 0 0 0
0.5 1.2589254e-06 0.038737937 0 0 0
0.5 1.2589254e-07 0.038760218 0 0 0
0.5 1.2589254e-08 0.035636264 0 0 0
0.5 1.2589254e-09 0.03867931 0 0 0
0.5 1.5848932e-05 0.04170655 0 0 0
0.5 1.5848932e-06 0.037064898 0 0 0
0.5 1.5848932e-07 0.038705281 0 0 0
0.5 1.5848932e-08 0.041535943 0 0 0
0.5 1.5848932e-09 0.039716118 0 0 0
0.5 1.9952623e-05 0.041132333 0 0 0
0.5 1.9952623e-06 0.037755172 0 0 0
0.5 1.9952623e-07 0.039803708 0 0 0
0.5 1.9952623e-08 0.04025655 0 0 0
0.5 1.9952623e-09 0.041365681 0 0 0
0.5 1e-05 0.042602581 0 0 0
0.5 1e-06 0.043150685 0 0 0
0.5 1e-07 0.039989081 0 0 0
0.5 1e-08 0.03712297 0 0 0
0.5 1e-09 0.04170655 0 0 0
0.5 2.5118864e-05 0.039295948 0 0 0
0.5 2.5118864e-06 0.038252487 0 0 0
0.5 2.5118864e-07 0.039099284 0 0 0
0.5 2.5118864e-08 0.043802105 0 0 0
0.5 2.5118864e-09 0.039053416 0 0 0
0.5 3.1622777e-05 0.038989416 0 0 0
0.5 3.1622777e-06 0.040594937 0 0 0
0.5 3.1622777e-07 0.036943458 0 0 0
0.5 3.1622777e-08 0.039368464 0 0 0
0.5 3.1622777e-09 0.03778475 0 0 0
0.5 3.9810717e-05 0.038270344 0 0 0
0.5 3.9810717e-06 0.038608458 0 0 0
0.5 3.9810717e-07 0.038437905 0 0 0
0.5 3.9810717e-08 0.036978811 0 0 0
0.5 3.9810717e-09 0.036814835 0 0 0
0.5 5.0118723e-05 0.038343454 0 0 0
0.5 5.0118723e-06 0.038934426 0 0 0
0.5 5.0118723e-07 0.040997608 0 0 0
0.5 5.0118723e-08 0.04255029 0 0 0
0.5 5.0118723e-09 0.042274649 0 0 0
0.5 6.3095734e-05 0.037978999 0 0 0
0.5 6.3095734e-06 0.03739371 0 0 0
0.5 6.3095734e-07 0.037725533 0 0 0
0.5 6.3095734e-08 0.038571623 0 0 0
0.5 6.3095734e-09 0.039072622 0 0 0
0.5 7.9432823e-05 0.037259042 0 0 0
0.5 7.9432823e-06 0.038212214 0 0 0
0.5 7.9432823e-07 0.040612608 0 0 0
0.5 7.9432823e-08 0.039601936 0 0 0
0.5 7.9432823e-09 0.038015288 0 0 0
0.55 1.2589254e-05 0.058733558 0 0 0
0.55 1.2589254e-06 0.057915058 0 0 0
0.55 1.2589254e-07 0.057235971 0 0 0
0.55 1.2589254e-08 0.053431223 0 0 0
0.55 1.5848932e-05 0.057498216 0 0 0
0.55 1.5848932e-06 0.057308632 0 0 0
0.55 1.5848932e-07 0.056645988 0 0 0
0.55 1.5848932e-08 0.061074919 0 0 0
0.55 1.9952623e-05 0.059117827 0 0 0
0.55 1.9952623e-06 0.054795918 0 0 0
0.55 1.9952623e-07 0.054034802 0 0 0
0.55 1.9952623e-08 0.055114099 0 0 0
0.55 1e-05 0.055096419 0 0 0
0.55 1e-06 0.032146137 0 0 0
0.55 1e-07 0.053190403 0 0 0
0.55 1e-08 0.061124694 0 0 0
0.55 2.5118864e-05 0.055725659 0 0 0
0.55 2.5118864e-06 0.06108505 0 0 0
0.55 2.5118864e-07 0.055362615 0 0 0
0.55 2.5118864e-08 0.05627485 0 0 0
0.55 3.1622777e-05 0.061629208 0 0 0
0.55 3.1622777e-06 0.058212904 0 0 0
0.55 3.1622777e-07 0.055232262 0 0 0
0.55 3.1622777e-08 0.058799634 0 0 0
0.55 3.1622777e-09 0.055708321 0 0 0
0.55 3.9810717e-06 0.05745136 0 0 0
0.55 3.9810717e-07 0.052411543 0 0 0
0.55 3.9810717e-08 0.058512262 0 0 0
0.55 3.9810717e-09 0.058206981 0 0 0
0.55 5.0118723e-06 0.060004075 0 0 0
0.55 5.0118723e-07 0.058619988 0 0 0
0.55 5.0118723e-08 0.057244898 0 0 0
0.55 5.0118723e-09 0.058679457 0 0 0
0.55 6.3095734e-06 0.061690629 0 0 0
0.55 6.3095734e-07 0.059399878 0 0 0
0.55 6.3095734e-08 0.051966578 0 0 0
0.55 6.3095734e-09 0.058367347 0 0 0
0.55 7.9432823e-06 0.05461029 0 0 0
0.55 7.9432823e-07 0.060559797 0 0 0
0.55 7.9432823e-08 0.058500356 0 0 0
0.55 7.9432823e-09 0.055119715 0 0 0
0.6 1.2589254e-05 0.082343385 0 0 0
0.6 1.2589254e-06 0.084916201 0 0 0
0.6 1.2589254e-07 0.076165329 0 0 0
0.6 1.2589254e-08 0.082538071 0 0 0
0.6 1.5848932e-05 0.081570382 0 0 0
0.6 1.5848932e-06 0.081580819 0 0 0
0.6 1.5848932e-07 0.078118651 0 0 0
0.6 1.5848932e-08 0.08450132 0 0 0
0.6 1.9952623e-05 0.083587244 0 0 0
0.6 1.9952623e-06 0.082547409 0 0 0
0.6 1.9952623e-07 0.082286177 0 0 0
0.6 1.9952623e-08 0.078439341 0 0 0
0.6 1e-05 0.079658606 0 0 0
0.6 1e-06 0.084602885 0 0 0
0.6 1e-07 0.080072978 0 0 0
0.6 1e-08 0.077157361 0 0 0
0.6 2.5118864e-05 0.084060029 0 0 0
0.6 2.5118864e-06 0.082910493 0 0 0
0.6 2.5118864e-07 0.084485563 0 0 0
0.6 2.5118864e-08 0.083621215 0 0 0
0.6 3.1622777e-05 0.083680309 0 0 0
0.6 3.1622777e-06 0.083316399 0 0 0
0.6 3.1622777e-07 0.082909978 0 0 0
0.6 3.1622777e-08 0.078110716 0 0 0
0.6 3.1622777e-09 0.078145561 0 0 0
0.6 3.9810717e-06 0.081015228 0 0 0
0.6 3.9810717e-07 0.082733448 0 0 0
0.6 3.9810717e-08 0.075977654 0 0 0
0.6 3.9810717e-09 0.079882555 0 0 0
0.6 5.0118723e-06 0.080125927 0 0 0
0.6 5.0118723e-07 0.077664975 0 0 0
0.6 5.0118723e-08 0.07935379 0 0 0
0.6 5.0118723e-09 0.078618588 0 0 0
0.6 6.3095734e-06 0.078632305 0 0 0
0.6 6.3095734e-07 0.085369563 0 0 0
0.6 6.3095734e-08 0.074994926 0 0 0
0.6 6.3095734e-09 0.077039887 0 0 0
0.6 7.9432823e-06 0.084821428 0 0 0
0.6 7.9432823e-07 0.081520634 0 0 0
0.6 7.9432823e-08 0.084649656 0 0 0
0.6 7.9432823e-09 0.084282229 0 0 0
0.65 1.1220185e-06 0.11279257 0 0 0
0.65 1.1220185e-06 0.11279257 0 0 0
0.65 1.2589254e-05 0.11790834 0 0 0
0.65 1.2589254e-06 0.11494949 0 0 0
0.65 1.2589254e-07 0.10971914 0 0 0
0.65 1.2589254e-08 0.11928831 0 0 0
0.65 1.4125375e-06 0.11967709 0 0 0
0.65 1.4125375e-06 0.11967709 0 0 0
0.65 1.5848932e-05 0.11764706 0 0 0
0.65 1.5848932e-06 0.11910067 0 0 0
0.65 1.5848932e-08 0.12197581 0 0 0
0.65 1.7782794e-06 0.11494253 0 0 0
0.65 1.7782794e-06 0.11494253 0 0 0
0.65 1.9952623e-05 0.12008866 0 0 0
0.65 1.9952623e-06 0.12381337 0 0 0
0.65 1.9952623e-07 0.11173975 0 0 0
0.65 1.9952623e-08 0.11802749 0 0 0
0.65 1e-05 0.11315417 0 0 0
0.65 1e-06 0.11587462 0 0 0
0.65 1e-08 0.11057206 0 0 0
0.65 2.2387211e-06 0.12757368 0 0 0
0.65 2.2387211e-06 0.12757368 0 0 0
0.65 2.5118864e-05 0.11804009 0 0 0
0.65 2.5118864e-06 0.11338328 0 0 0
0.65 2.5118864e-07 0.11467797 0 0 0
0.65 2.5118864e-08 0.11965985 0 0 0
0.65 2.8183829e-06 0.11115602 0 0 0
0.65 2.8183829e-06 0.11115602 0 0 0
0.65 3.1622777e-05 0.11939394 0 0 0
0.65 3.1622777e-06 0.12371549 0 0 0
0.65 3.1622777e-07 0.11564077 0 0 0
0.65 3.1622777e-08 0.119038 0 0 0
0.65 3.1622777e-09 0.11851403 0 0 0
0.65 3.5481339e-06 0.12075929 0 0 0
0.65 3.5481339e-06 0.12075929 0 0 0
0.65 3.9810717e-06 0.12131015 0 0 0
0.65 3.9810717e-07 0.11788454 0 0 0
0.65 3.9810717e-08 0.11738604 0 0 0
0.65 3.9810717e-09 0.11674098 0 0 0
0.65 4.4668359e-06 0.10242915 0 0 0
0.65 4.4668359e-06 0.10242915 0 0 0
0.65 5.0118723e-06 0.12371342 0 0 0
0.65 5.0118723e-07 0.12099716 0 0 0
0.65 5.0118723e-08 0.1138754 0 0 0
0.65 5.0118723e-09 0.11638715 0 0 0
0.65 5.6234133e-06 0.11156023 0 0 0
0.65 6.3095734e-06 0.11769448 0 0 0
0.65 6.3095734e-07 0.12186742 0 0 0
0.65 6.3095734e-08 0.11945117 0 0 0
0.65 6.3095734e-09 0.1083098 0 0 0
0.65 7.0794578e-06 0.1196443 0 0 0
0.65 7.9432823e-06 0.11185275 0 0 0
0.65 7.9432823e-07 0.10864297 0 0 0
0.65 7.9432823e-08 0.11507457 0 0 0
0.65 7.9432823e-09 0.12121212 0 0 0
0.65 8.9125094e-06 0.11160534 0 0 0
0.7 1.2589254e-05 0.20088656 0 0 0
0.7 1.2589254e-06 0.19722278 0 0 0
0.7 1.2589254e-07 0.2000806 0 0 0
0.7 1.2589254e-08 0.1959718 0 0 0
0.7 1.5848932e-05 0.19677419 0 0 0
0.7 1.5848932e-06 0.20591787 0 0 0
0.7 1.5848932e-07 0.20345798 0 0 0
0.7 1.5848932e-08 0.19128329 0 0 0
0.7 1.9952623e-05 0.20044275 0 0 0
0.7 1.9952623e-06 0.19883159 0 0 0
0.7 1.9952623e-07 0.20611916 0 0 0
0.7 1.9952623e-08 0.21092808 0 0 0
0.7 1e-05 0.20044275 0 0 0
0.7 1e-06 0.20140704 0 0 0
0.7 1e-07 0.19625604 0 0 0
0.7 1e-08 0.19642139 0 0 0
0.7 2.5118864e-05 0.19891392 0 0 0
0.7 2.5118864e-06 0.18973843 0 0 0
0.7 2.5118864e-07 0.19802579 0 0 0
0.7 2.5118864e-08 0.19195171 0 0 0
0.7 3.1622777e-05 0.19959718 0 0 0
0.7 3.1622777e-06 0.19205965 0 0 0
0.7 3.1622777e-07 0.199839 0 0 0
0.7 3.1622777e-08 0.19517588 0 0 0
0.7 3.1622777e-09 0.19564779 0 0 0
0.7 3.9810717e-06 0.19590115 0 0 0
0.7 3.9810717e-07 0.19714056 0 0 0
0.7 3.9810717e-08 0.2040652 0 0 0
0.7 3.9810717e-09 0.20076367 0 0 0
0.7 5.0118723e-06 0.19814554 0 0 0
0.7 5.0118723e-07 0.19915425 0 0 0
0.7 5.0118723e-08 0.19384677 0 0 0
0.7 5.0118723e-09 0.20438544 0 0 0
0.7 6.3095734e-06 0.20177027 0 0 0
0.7 6.3095734e-07 0.19705823 0 0 0
0.7 6.3095734e-08 0.2019347 0 0 0
0.7 6.3095734e-09 0.19742403 0 0 0
0.7 7.9432823e-06 0.19907407 0 0 0
0.7 7.9432823e-07 0.18733616 0 0 0
0.7 7.9432823e-08 0.19501407 0 0 0
0.7 7.9432823e-09 0.19263285 0 0 0
0.75 1.1220185e-06 0.22579349 0 0 0
0.75 1.1220185e-06 0.22579349 0 0 0
0.75 1.2589254e-05 0.23191318 0 0 0
0.75 1.2589254e-06 0.22036963 0 0 0
0.75 1.2589254e-07 0.23124749 0 0 0
0.75 1.2589254e-08 0.22796781 0 0 0
0.75 1.4125375e-06 0.21715548 0 0 0
0.75 1.4125375e-06 0.21715548 0 0 0
0.75 1.5848932e-05 0.23342708 0 0 0
0.75 1.5848932e-06 0.22872661 0 0 0
0.75 1.5848932e-07 0.23098535 0 0 0
0.75 1.5848932e-08 0.23171222 0 0 0
0.75 1.7782794e-06 0.21498895 0 0 0
0.75 1.7782794e-06 0.21498895 0 0 0
0.75 1.9952623e-05 0.22526146 0 0 0
0.75 1.9952623e-06 0.22432161 0 0 0
0.75 1.9952623e-07 0.23029087 0 0 0
0.75 1.9952623e-08 0.23103171 0 0 0
0.75 1e-05 0.21606426 0 0 0
0.75 1e-06 0.24578652 0 0 0
0.75 1e-07 0.22141853 0 0 0
0.75 1e-08 0.2169546 0 0 0
0.75 2.2387211e-06 0.21945838 0 0 0
0.75 2.2387211e-06 0.21945838 0 0 0
0.75 2.5118864e-05 0.22948847 0 0 0
0.75 2.5118864e-06 0.22429345 0 0 0
0.75 2.5118864e-07 0.22541148 0 0 0
0.75 2.5118864e-08 0.23434992 0 0 0
0.75 2.8183829e-06 0.217941 0 0 0
0.75 3.1622777e-05 0.22302592 0 0 0
0.75 3.1622777e-06 0.23277767 0 0 0
0.75 3.1622777e-07 0.22784045 0 0 0
0.75 3.1622777e-08 0.21639542 0 0 0
0.75 3.1622777e-09 0.23472669 0 0 0
0.75 3.5481339e-06 0.23800923 0 0 0
0.75 3.9810717e-06 0.22505521 0 0 0
0.75 3.9810717e-07 0.22440787 0 0 0
0.75 3.9810717e-08 0.2251004 0 0 0
0.75 3.9810717e-09 0.22095123 0 0 0
0.75 4.4668359e-06 0.22732745 0 0 0
0.75 5.0118723e-06 0.23593248 0 0 0
0.75 5.0118723e-07 0.2294555 0 0 0
0.75 5.0118723e-08 0.22706284 0 0 0
0.75 5.0118723e-09 0.22583886 0 0 0
0.75 5.6234133e-06 0.22427282 0 0 0
0.75 6.3095734e-06 0.23424328 0 0 0
0.75 6.3095734e-07 0.22831325 0 0 0
0.75 6.3095734e-08 0.23555377 0 0 0
0.75 6.3095734e-09 0.20731217 0 0 0
0.75 7.0794578e-06 0.2270444 0 0 0
0.75 7.9432823e-06 0.22583233 0 0 0
0.75 7.9432823e-07 0.22824995 0 0 0
0.75 7.9432823e-08 0.2269717 0 0 0
0.75 7.9432823e-09 0.22828485 0 0 0
0.75 8.9125094e-06 0.23245086 0 0 0
0.7 2.5118864e-07 0.19802579 0 0 0
0.8 1.1220185e-06 0.21523312 0 0 0
0.8 1.2589254e-05 0.21408507 0 0 0
0.8 1.2589254e-06 0.20394208 0 0 0
0.8 1.2589254e-07 0.2061835 0 0 0
0.8 1.2589254e-08 0.21252258 0 0 0
0.8 1.4125375e-06 0.21004016 0 0 0
0.8 1.5848932e-05 0.21372667 0 0 0
0.8 1.5848932e-06 0.2163085 0 0 0
0.8 1.5848932e-07 0.21566265 0 0 0
0.8 1.5848932e-08 0.21514665 0 0 0
0.8 1.7782794e-06 0.20814934 0 0 0
0.8 1.9952623e-05 0.21196307 0 0 0
0.8 1.9952623e-06 0.21134124 0 0 0
0.8 1.9952623e-07 0.202369 0 0 0
0.8 1.9952623e-08 0.20754717 0 0 0
0.8 1e-05 0.20510245 0 0 0
0.8 1e-06 0.20578778 0 0 0
0.8 1e-07 0.20453633 0 0 0
0.8 1e-08 0.20794862 0 0 0
0.8 2.2387211e-06 0.22289157 0 0 0
0.8 2.5118864e-05 0.19971871 0 0 0
0.8 2.5118864e-06 0.21553281 0 0 0
0.8 2.5118864e-07 0.21623794 0 0 0
0.8 2.5118864e-08 0.19819458 0 0 0
0.8 2.8183829e-06 0.20835006 0 0 0
0.8 3.1622777e-05 0.20350242 0 0 0
0.8 3.1622777e-06 0.21196307 0 0 0
0.8 3.1622777e-07 0.21269331 0 0 0
0.8 3.1622777e-08 0.21729535 0 0 0
0.8 3.1622777e-09 0.20405704 0 0 0
0.8 3.5481339e-06 0.20662651 0 0 0
0.8 3.9810717e-06 0.20775568 0 0 0
0.8 3.9810717e-07 0.21183551 0 0 0
0.8 3.9810717e-08 0.21204819 0 0 0
0.8 3.9810717e-09 0.2108119 0 0 0
0.8 4.4668359e-06 0.20937249 0 0 0
0.8 5.0118723e-06 0.20819113 0 0 0
0.8 5.0118723e-07 0.20697954 0 0 0
0.8 5.0118723e-08 0.21550512 0 0 0
0.8 5.0118723e-09 0.21305221 0 0 0
0.8 5.6234133e-06 0.21226699 0 0 0
0.8 6.3095734e-06 0.21541859 0 0 0
0.8 6.3095734e-07 0.21520257 0 0 0
0.8 6.3095734e-08 0.21019876 0 0 0
0.8 6.3095734e-09 0.21780189 0 0 0
0.8 7.0794578e-06 0.20614211 0 0 0
0.8 7.9432823e-06 0.22008032 0 0 0
0.8 7.9432823e-07 0.20080402 0 0 0
0.8 7.9432823e-08 0.21626506 0 0 0
0.8 7.9432823e-09 0.20393812 0 0 0
0.8 8.9125094e-06 0.2038191 0 0 0
0.81 1.1220185e-06 0.20084439 0 0 0
0.81 1.1220185e-06 0.20084439 0 0 0
0.81 1.2589254e-05 0.18996991 0 0 0
0.81 1.2589254e-06 0.1997992 0 0 0
0.81 1.2589254e-07 0.19416499 0 0 0
0.81 1.2589254e-08 0.20080402 0 0 0
0.81 1.4125375e-06 0.19867417 0 0 0
0.81 1.4125375e-06 0.19867417 0 0 0
0.81 1.5848932e-05 0.18850482 0 0 0
0.81 1.5848932e-06 0.20293055 0 0 0
0.81 1.5848932e-07 0.19352894 0 0 0
0.81 1.5848932e-08 0.20743719 0 0 0
0.81 1.7782794e-06 0.1993988 0 0 0
0.81 1.7782794e-06 0.1993988 0 0 0
0.81 1.9952623e-05 0.19875402 0 0 0
0.81 1.9952623e-06 0.19903692 0 0 0
0.81 1.9952623e-07 0.20763052 0 0 0
0.81 1.9952623e-08 0.20224945 0 0 0
0.81 1e-05 0.19497487 0 0 0
0.81 1e-06 0.19381402 0 0 0
0.81 1e-07 0.20301508 0 0 0
0.81 1e-08 0.19039968 0 0 0
0.81 2.2387211e-06 0.19549024 0 0 0
0.81 2.2387211e-06 0.19549024 0 0 0
0.81 2.5118864e-05 0.20417587 0 0 0
0.81 2.5118864e-06 0.19666867 0 0 0
0.81 2.5118864e-07 0.19975884 0 0 0
0.81 2.5118864e-08 0.18516285 0 0 0
0.81 2.8183829e-06 0.20538045 0 0 0
0.81 3.1622777e-05 0.19831393 0 0 0
0.81 3.1622777e-06 0.20466425 0 0 0
0.81 3.1622777e-07 0.19831054 0 0 0
0.81 3.1622777e-08 0.19682667 0 0 0
0.81 3.1622777e-09 0.19815113 0 0 0
0.81 3.5481339e-06 0.19919759 0 0 0
0.81 3.9810717e-06 0.19835043 0 0 0
0.81 3.9810717e-07 0.19501908 0 0 0
0.81 3.9810717e-08 0.18889559 0 0 0
0.81 3.9810717e-09 0.20152702 0 0 0
0.81 4.4668359e-06 0.19907593 0 0 0
0.81 5.0118723e-06 0.19939759 0 0 0
0.81 5.0118723e-07 0.19726523 0 0 0
0.81 5.0118723e-08 0.21183551 0 0 0
0.81 5.0118723e-09 0.18847852 0 0 0
0.81 5.6234133e-06 0.19376884 0 0 0
0.81 6.3095734e-06 0.20261569 0 0 0
0.81 6.3095734e-07 0.18826602 0 0 0
0.81 6.3095734e-08 0.2007629 0 0 0
0.81 6.3095734e-09 0.20245275 0 0 0
0.81 7.0794578e-06 0.18890675 0 0 0
0.81 7.9432823e-06 0.1937236 0 0 0
0.81 7.9432823e-07 0.19979899 0 0 0
0.81 7.9432823e-08 0.19409876 0 0 0
0.81 7.9432823e-09 0.20120361 0 0 0
0.81 8.9125094e-06 0.20116442 0 0 0
0.82 1.1220185e-06 0.18674699 0 0 0
0.82 1.1220185e-06 0.18674699 0 0 0
0.82 1.2589254e-05 0.1846865 0 0 0
0.82 1.2589254e-06 0.18958585 0 0 0
0.82 1.2589254e-07 0.1760804 0 0 0
0.82 1.2589254e-08 0.18430034 0 0 0
0.82 1.4125375e-06 0.19497992 0 0 0
0.82 1.4125375e-06 0.19497992 0 0 0
0.82 1.5848932e-05 0.19212219 0 0 0
0.82 1.5848932e-06 0.19060052 0 0 0
0.82 1.5848932e-07 0.19429375 0 0 0
0.82 1.5848932e-08 0.18832732 0 0 0
0.82 1.7782794e-06 0.18763841 0 0 0
0.82 1.7782794e-06 0.18763841 0 0 0
0.82 1.9952623e-05 0.19277834 0 0 0
0.82 1.9952623e-06 0.18536389 0 0 0
0.82 1.9952623e-07 0.18936342 0 0 0
0.82 1.9952623e-08 0.18187311 0 0 0
0.82 1e-05 0.19156627 0 0 0
0.82 1e-06 0.18402569 0 0 0
0.82 1e-07 0.18099638 0 0 0
0.82 1e-08 0.18689711 0 0 0
0.82 2.2387211e-06 0.1921608 0 0 0
0.82 2.2387211e-06 0.1921608 0 0 0
0.82 2.5118864e-05 0.18910772 0 0 0
0.82 2.5118864e-06 0.18854271 0 0 0
0.82 2.5118864e-07 0.18470825 0 0 0
0.82 2.5118864e-08 0.18264014 0 0 0
0.82 2.8183829e-06 0.18381317 0 0 0
0.82 2.8183829e-06 0.18381317 0 0 0
0.82 3.1622777e-05 0.177144 0 0 0
0.82 3.1622777e-06 0.19303543 0 0 0
0.82 3.1622777e-07 0.19124146 0 0 0
0.82 3.1622777e-08 0.18860709 0 0 0
0.82 3.1622777e-09 0.18619583 0 0 0
0.82 3.5481339e-06 0.18685955 0 0 0
0.82 3.9810717e-06 0.19347037 0 0 0
0.82 3.9810717e-07 0.19542077 0 0 0
0.82 3.9810717e-08 0.1842317 0 0 0
0.82 3.9810717e-09 0.18746233 0 0 0
0.82 4.4668359e-06 0.18974874 0 0 0
0.82 5.0118723e-06 0.17531162 0 0 0
0.82 5.0118723e-07 0.19200643 0 0 0
0.82 5.0118723e-08 0.18305901 0 0 0
0.82 5.0118723e-09 0.18136172 0 0 0
0.82 5.6234133e-06 0.1878142 0 0 0
0.82 6.3095734e-06 0.20225171 0 0 0
0.82 6.3095734e-07 0.18116088 0 0 0
0.82 6.3095734e-08 0.18492462 0 0 0
0.82 6.3095734e-09 0.1840836 0 0 0
0.82 7.0794578e-06 0.18077619 0 0 0
0.82 7.9432823e-06 0.18928141 0 0 0
0.82 7.9432823e-07 0.17697871 0 0 0
0.82 7.9432823e-08 0.18377184 0 0 0
0.82 7.9432823e-09 0.19594051 0 0 0
0.82 8.9125094e-06 0.1967411 0 0 0
0.83 1.1220185e-06 0.17028548 0 0 0
0.83 1.1220185e-06 0.17028548 0 0 0
0.83 1.2589254e-05 0.18366526 0 0 0
0.83 1.2589254e-06 0.17379948 0 0 0
0.83 1.2589254e-07 0.18403057 0 0 0
0.83 1.2589254e-08 0.1875 0 0 0
0.83 1.4125375e-06 0.16834474 0 0 0
0.83 1.4125375e-06 0.16834474 0 0 0
0.83 1.5848932e-05 0.18172691 0 0 0
0.83 1.5848932e-06 0.17260826 0 0 0
0.83 1.5848932e-07 0.18072047 0 0 0
0.83 1.5848932e-08 0.16945059 0 0 0
0.83 1.7782794e-06 0.17356368 0 0 0
0.83 1.7782794e-06 0.17356368 0 0 0
0.83 1.9952623e-05 0.18554217 0 0 0
0.83 1.9952623e-06 0.17393051 0 0 0
0.83 1.9952623e-07 0.17135961 0 0 0
0.83 1.9952623e-08 0.16884422 0 0 0
0.83 1e-05 0.18434293 0 0 0
0.83 1e-06 0.18355448 0 0 0
0.83 1e-07 0.1842317 0 0 0
0.83 1e-08 0.18860353 0 0 0
0.83 2.2387211e-06 0.17203219 0 0 0
0.83 2.2387211e-06 0.17203219 0 0 0
0.83 2.5118864e-05 0.17784022 0 0 0
0.83 2.5118864e-06 0.17691998 0 0 0
0.83 2.5118864e-07 0.18634166 0 0 0
0.83 2.5118864e-08 0.17410535 0 0 0
0.83 2.8183829e-06 0.18276973 0 0 0
0.83 2.8183829e-06 0.18276973 0 0 0
0.83 3.1622777e-05 0.17122186 0 0 0
0.83 3.1622777e-06 0.16659952 0 0 0
0.83 3.1622777e-07 0.17431562 0 0 0
0.83 3.1622777e-08 0.1820004 0 0 0
0.83 3.1622777e-09 0.17552335 0 0 0
0.83 3.5481339e-06 0.1798995 0 0 0
0.83 3.9810717e-06 0.16907631 0 0 0
0.83 3.9810717e-07 0.17889447 0 0 0
0.83 3.9810717e-08 0.1821292 0 0 0
0.83 3.9810717e-09 0.17155484 0 0 0
0.83 4.4668359e-06 0.18578028 0 0 0
0.83 5.0118723e-06 0.18785197 0 0 0
0.83 5.0118723e-07 0.18518519 0 0 0
0.83 5.0118723e-08 0.17857862 0 0 0
0.83 5.0118723e-09 0.17811807 0 0 0
0.83 5.6234133e-06 0.17977076 0 0 0
0.83 6.3095734e-06 0.17914654 0 0 0
0.83 6.3095734e-07 0.18432161 0 0 0
0.83 6.3095734e-08 0.17246231 0 0 0
0.83 6.3095734e-09 0.17628141 0 0 0
0.83 7.0794578e-06 0.18295135 0 0 0
0.83 7.9432823e-06 0.17857862 0 0 0
0.83 7.9432823e-07 0.18022905 0 0 0
0.83 7.9432823e-08 0.1795902 0 0 0
0.83 7.9432823e-09 0.17095219 0 0 0
0.83 8.9125094e-06 0.1716928 0 0 0
0.84 1.2589254e-05 0.16770311 0 0 0
0.84 1.2589254e-06 0.15373794 0 0 0
0.84 1.2589254e-07 0.17176802 0 0 0
0.84 1.2589254e-08 0.16753716 0 0 0
0.84 1.5848932e-05 0.16318328 0 0 0
0.84 1.5848932e-06 0.16643131 0 0 0
0.84 1.5848932e-07 0.16127736 0 0 0
0.84 1.5848932e-08 0.16361441 0 0 0
0.84 1.9952623e-05 0.15619968 0 0 0
0.84 1.9952623e-06 0.16619775 0 0 0
0.84 1.9952623e-07 0.15361385 0 0 0
0.84 1.9952623e-08 0.17531162 0 0 0
0.84 1e-05 0.15695338 0 0 0
0.84 1e-06 0.15587289 0 0 0
0.84 1e-07 0.17011864 0 0 0
0.84 1e-08 0.15922799 0 0 0
0.84 2.5118864e-05 0.16814159 0 0 0
0.84 2.5118864e-06 0.17085427 0 0 0
0.84 2.5118864e-07 0.15871098 0 0 0
0.84 2.5118864e-08 0.16441668 0 0 0
0.84 3.1622777e-05 0.15689829 0 0 0
0.84 3.1622777e-06 0.17028548 0 0 0
0.84 3.1622777e-07 0.16995173 0 0 0
0.84 3.1622777e-08 0.16354858 0 0 0
0.84 3.1622777e-09 0.15328908 0 0 0
0.84 3.9810717e-06 0.16469171 0 0 0
0.84 3.9810717e-07 0.15707965 0 0 0
0.84 3.9810717e-08 0.15999195 0 0 0
0.84 3.9810717e-09 0.16552832 0 0 0
0.84 5.0118723e-06 0.17075623 0 0 0
0.84 5.0118723e-07 0.16700201 0 0 0
0.84 5.0118723e-08 0.16840626 0 0 0
0.84 5.0118723e-09 0.16203144 0 0 0
0.84 6.3095734e-06 0.15963008 0 0 0
0.84 6.3095734e-07 0.1650583 0 0 0
0.84 6.3095734e-08 0.16643188 0 0 0
0.84 6.3095734e-09 0.1644194 0 0 0
0.84 7.9432823e-06 0.16592831 0 0 0
0.84 7.9432823e-07 0.16727126 0 0 0
0.84 7.9432823e-08 0.16690127 0 0 0
0.84 7.9432823e-09 0.16385542 0 0 0
0.85 1.2589254e-05 0.14254077 0 0 0
0.85 1.2589254e-06 0.1498994 0 0 0
0.85 1.2589254e-07 0.1489533 0 0 0
0.85 1.2589254e-08 0.1469996 0 0 0
0.85 1.5848932e-05 0.15276382 0 0 0
0.85 1.5848932e-06 0.14467056 0 0 0
0.85 1.5848932e-07 0.14590891 0 0 0
0.85 1.5848932e-08 0.14202256 0 0 0
0.85 1.9952623e-05 0.14870038 0 0 0
0.85 1.9952623e-06 0.1513383 0 0 0
0.85 1.9952623e-07 0.14400644 0 0 0
0.85 1.9952623e-08 0.14572461 0 0 0
0.85 1e-05 0.15618702 0 0 0
0.85 1e-06 0.15587289 0 0 0
0.85 1e-07 0.1489533 0 0 0
0.85 1e-08 0.14150373 0 0 0
0.85 2.5118864e-05 0.14475539 0 0 0
0.85 2.5118864e-06 0.14469972 0 0 0
0.85 2.5118864e-07 0.14976819 0 0 0
0.85 3.1622777e-05 0.15071529 0 0 0
0.85 3.1622777e-06 0.14941603 0 0 0
0.85 3.1622777e-07 0.1427996 0 0 0
0.85 3.1622777e-08 0.14268464 0 0 0
0.85 3.1622777e-09 0.14905585 0 0 0
0.85 3.9810717e-06 0.1581386 0 0 0
0.85 3.9810717e-07 0.14346162 0 0 0
0.85 3.9810717e-08 0.15648316 0 0 0
0.85 3.9810717e-09 0.15797947 0 0 0
0.85 5.0118723e-06 0.15079525 0 0 0
0.85 5.0118723e-07 0.15024135 0 0 0
0.85 5.0118723e-08 0.14900462 0 0 0
0.85 5.0118723e-09 0.14873035 0 0 0
0.85 6.3095734e-06 0.14762671 0 0 0
0.85 6.3095734e-07 0.14831958 0 0 0
0.85 6.3095734e-08 0.1460177 0 0 0
0.85 6.3095734e-09 0.13468895 0 0 0
0.85 7.9432823e-06 0.14288589 0 0 0
0.85 7.9432823e-07 0.15449778 0 0 0
0.85 7.9432823e-08 0.14854271 0 0 0
0.85 7.9432823e-09 0.14461476 0 0 0
0.86 1.1220185e-06 0.15225261 0 0 0
0.86 1.1220185e-06 0.15225261 0 0 0
0.86 1.2589254e-05 0.15186304 0 0 0
0.86 1.2589254e-06 0.15268558 0 0 0
0.86 1.2589254e-07 0.15199035 0 0 0
0.86 1.2589254e-08 0.15869827 0 0 0
0.86 1.4125375e-06 0.14305835 0 0 0
0.86 1.4125375e-06 0.14305835 0 0 0
0.86 1.5848932e-05 0.15338042 0 0 0
0.86 1.5848932e-06 0.14498291 0 0 0
0.86 1.5848932e-07 0.14325956 0 0 0
0.86 1.5848932e-08 0.14044266 0 0 0
0.86 1.7782794e-06 0.14708845 0 0 0
0.86 1.7782794e-06 0.14708845 0 0 0
0.86 1.9952623e-05 0.1469996 0 0 0
0.86 1.9952623e-06 0.15266868 0 0 0
0.86 1.9952623e-07 0.14015304 0 0 0
0.86 1.9952623e-08 0.14817049 0 0 0
0.86 1e-05 0.14676867 0 0 0
0.86 1e-06 0.14878196 0 0 0
0.86 1e-07 0.15469724 0 0 0
0.86 1e-08 0.1422249 0 0 0
0.86 2.2387211e-06 0.15090543 0 0 0
0.86 2.2387211e-06 0.15090543 0 0 0
0.86 2.5118864e-05 0.14239678 0 0 0
0.86 2.5118864e-06 0.14914573 0 0 0
0.86 2.5118864e-07 0.15171026 0 0 0
0.86 2.5118864e-08 0.15125881 0 0 0
0.86 2.8183829e-06 0.15016103 0 0 0
0.86 2.8183829e-06 0.15016103 0 0 0
0.86 3.1622777e-05 0.14699377 0 0 0
0.86 3.1622777e-06 0.13886656 0 0 0
0.86 3.1622777e-07 0.15234454 0 0 0
0.86 3.1622777e-08 0.14814815 0 0 0
0.86 3.1622777e-09 0.1423681 0 0 0
0.86 3.5481339e-06 0.14930486 0 0 0
0.86 3.9810717e-06 0.1489533 0 0 0
0.86 3.9810717e-07 0.15324205 0 0 0
0.86 3.9810717e-08 0.15103434 0 0 0
0.86 3.9810717e-09 0.14498891 0 0 0
0.86 4.4668359e-06 0.15128928 0 0 0
0.86 5.0118723e-06 0.15327291 0 0 0
0.86 5.0118723e-07 0.15213023 0 0 0
0.86 5.0118723e-08 0.14452261 0 0 0
0.86 5.0118723e-09 0.15502315 0 0 0
0.86 5.6234133e-06 0.13293051 0 0 0
0.86 6.3095734e-06 0.14538508 0 0 0
0.86 6.3095734e-07 0.15728077 0 0 0
0.86 6.3095734e-08 0.15290089 0 0 0
0.86 6.3095734e-09 0.14779811 0 0 0
0.86 7.0794578e-06 0.14964753 0 0 0
0.86 7.9432823e-06 0.1483793 0 0 0
0.86 7.9432823e-07 0.15254918 0 0 0
0.86 7.9432823e-08 0.14294318 0 0 0
0.86 7.9432823e-09 0.14550584 0 0 0
0.86 8.9125094e-06 0.1521914 0 0 0
0.87 1.1220185e-06 0.13471607 0 0 0
0.87 1.1220185e-06 0.13471607 0 0 0
0.87 1.2589254e-05 0.1281483 0 0 0
0.87 1.2589254e-06 0.13064516 0 0 0
0.87 1.2589254e-07 0.13485184 0 0 0
0.87 1.2589254e-08 0.12855128 0 0 0
0.87 1.4125375e-06 0.12517638 0 0 0
0.87 1.4125375e-06 0.12517638 0 0 0
0.87 1.5848932e-05 0.1345535 0 0 0
0.87 1.5848932e-06 0.12792103 0 0 0
0.87 1.5848932e-07 0.12537795 0 0 0
0.87 1.5848932e-08 0.13303769 0 0 0
0.87 1.7782794e-06 0.12650845 0 0 0
0.87 1.7782794e-06 0.12650845 0 0 0
0.87 1.9952623e-05 0.12769386 0 0 0
0.87 1.9952623e-06 0.12004826 0 0 0
0.87 1.9952623e-07 0.12680868 0 0 0
0.87 1.9952623e-08 0.12777106 0 0 0
0.87 1e-05 0.13179074 0 0 0
0.87 1e-06 0.13204509 0 0 0
0.87 1e-07 0.12646228 0 0 0
0.87 1e-08 0.12749647 0 0 0
0.87 2.2387211e-06 0.12590653 0 0 0
0.87 2.2387211e-06 0.12590653 0 0 0
0.87 2.5118864e-05 0.12226021 0 0 0
0.87 2.5118864e-06 0.13196126 0 0 0
0.87 2.5118864e-07 0.12595573 0 0 0
0.87 2.5118864e-08 0.12633273 0 0 0
0.87 2.8183829e-06 0.1307584 0 0 0
0.87 2.8183829e-06 0.1307584 0 0 0
0.87 3.1622777e-05 0.12429606 0 0 0
0.87 3.1622777e-06 0.12911035 0 0 0
0.87 3.1622777e-07 0.1323145 0 0 0
0.87 3.1622777e-08 0.13553187 0 0 0
0.87 3.1622777e-09 0.12721774 0 0 0
0.87 3.5481339e-06 0.12646228 0 0 0
0.87 3.9810717e-06 0.12492444 0 0 0
0.87 3.9810717e-07 0.12625653 0 0 0
0.87 3.9810717e-08 0.13810484 0 0 0
0.87 3.9810717e-09 0.13044355 0 0 0
0.87 4.4668359e-06 0.1259304 0 0 0
0.87 5.0118723e-06 0.12149909 0 0 0
0.87 5.0118723e-07 0.12701939 0 0 0
0.87 5.0118723e-08 0.1327291 0 0 0
0.87 5.0118723e-09 0.12966324 0 0 0
0.87 5.6234133e-06 0.13597108 0 0 0
0.87 6.3095734e-06 0.12577983 0 0 0
0.87 6.3095734e-07 0.13102197 0 0 0
0.87 6.3095734e-08 0.13259557 0 0 0
0.87 6.3095734e-09 0.12565445 0 0 0
0.87 7.0794578e-06 0.12887636 0 0 0
0.87 7.9432823e-06 0.13208685 0 0 0
0.87 7.9432823e-07 0.11976651 0 0 0
0.87 7.9432823e-08 0.12530169 0 0 0
0.87 7.9432823e-09 0.12522723 0 0 0
0.87 8.9125094e-06 0.12426989 0 0 0
0.88 1.1220185e-06 0.1201449 0 0 0
0.88 1.1220185e-06 0.1201449 0 0 0
0.88 1.2589254e-05 0.11350372 0 0 0
0.88 1.2589254e-06 0.1163072 0 0 0
0.88 1.2589254e-07 0.12202501 0 0 0
0.88 1.2589254e-08 0.11985472 0 0 0
0.88 1.4125375e-06 0.1199355 0 0 0
0.88 1.4125375e-06 0.1199355 0 0 0
0.88 1.5848932e-05 0.11950826 0 0 0
0.88 1.5848932e-06 0.1189756 0 0 0
0.88 1.5848932e-07 0.11605884 0 0 0
0.88 1.5848932e-08 0.11471121 0 0 0
0.88 1.7782794e-06 0.12112676 0 0 0
0.88 1.7782794e-06 0.12112676 0 0 0
0.88 1.9952623e-05 0.12844776 0 0 0
0.88 1.9952623e-06 0.10996979 0 0 0
0.88 1.9952623e-07 0.11697202 0 0 0
0.88 1.9952623e-08 0.11968567 0 0 0
0.88 1e-05 0.11429725 0 0 0
0.88 1e-06 0.12459742 0 0 0
0.88 1e-07 0.1249497 0 0 0
0.88 1e-08 0.11802618 0 0 0
0.88 2.2387211e-06 0.12777106 0 0 0
0.88 2.2387211e-06 0.12777106 0 0 0
0.88 2.5118864e-05 0.12132205 0 0 0
0.88 2.5118864e-06 0.12903877 0 0 0
0.88 2.5118864e-07 0.12037781 0 0 0
0.88 2.5118864e-08 0.12104733 0 0 0
0.88 2.8183829e-06 0.12608084 0 0 0
0.88 2.8183829e-06 0.12608084 0 0 0
0.88 3.1622777e-05 0.11867822 0 0 0
0.88 3.1622777e-06 0.12374245 0 0 0
0.88 3.1622777e-07 0.12127317 0 0 0
0.88 3.1622777e-08 0.12225579 0 0 0
0.88 3.1622777e-09 0.12349155 0 0 0
0.88 3.5481339e-06 0.12935724 0 0 0
0.88 3.5481339e-06 0.12935724 0 0 0
0.88 3.9810717e-06 0.12107172 0 0 0
0.88 3.9810717e-07 0.11729141 0 0 0
0.88 3.9810717e-08 0.12711523 0 0 0
0.88 3.9810717e-09 0.12051592 0 0 0
0.88 4.4668359e-06 0.10597497 0 0 0
0.88 5.0118723e-06 0.12708963 0 0 0
0.88 5.0118723e-07 0.12416985 0 0 0
0.88 5.0118723e-08 0.12487412 0 0 0
0.88 5.0118723e-09 0.11986301 0 0 0
0.88 5.6234133e-06 0.12384213 0 0 0
0.88 6.3095734e-06 0.13197663 0 0 0
0.88 6.3095734e-07 0.12376338 0 0 0
0.88 6.3095734e-08 0.12985706 0 0 0
0.88 6.3095734e-09 0.11607322 0 0 0
0.88 7.0794578e-06 0.1204431 0 0 0
0.88 7.9432823e-06 0.12329043 0 0 0
0.88 7.9432823e-07 0.11486622 0 0 0
0.88 7.9432823e-08 0.11807375 0 0 0
0.88 7.9432823e-09 0.12114493 0 0 0
0.88 8.9125094e-06 0.11395208 0 0 0
0.89 1.1220185e-06 0.11026003 0 0 0
0.89 1.1220185e-06 0.11026003 0 0 0
0.89 1.2589254e-05 0.11585734 0 0 0
0.89 1.2589254e-06 0.10882709 0 0 0
0.89 1.2589254e-07 0.10974627 0 0 0
0.89 1.2589254e-08 0.11540785 0 0 0
0.89 1.4125375e-06 0.10870883 0 0 0
0.89 1.4125375e-06 0.10870883 0 0 0
0.89 1.5848932e-05 0.11102156 0 0 0
0.89 1.5848932e-06 0.11229624 0 0 0
0.89 1.5848932e-07 0.10312185 0 0 0
0.89 1.5848932e-08 0.106143 0 0 0
0.89 1.7782794e-06 0.10139085 0 0 0
0.89 1.7782794e-06 0.10139085 0 0 0
0.89 1.9952623e-05 0.1025796 0 0 0
0.89 1.9952623e-06 0.10344828 0 0 0
0.89 1.9952623e-07 0.10934354 0 0 0
0.89 1.9952623e-08 0.10268307 0 0 0
0.89 1e-05 0.11176115 0 0 0
0.89 1e-06 0.1020202 0 0 0
0.89 1e-07 0.10134999 0 0 0
0.89 1e-08 0.10661839 0 0 0
0.89 2.2387211e-06 0.110349 0 0 0
0.89 2.2387211e-06 0.110349 0 0 0
0.89 2.5118864e-05 0.1104616 0 0 0
0.89 2.5118864e-06 0.11514418 0 0 0
0.89 2.5118864e-07 0.10628019 0 0 0
0.89 2.5118864e-08 0.11106632 0 0 0
0.89 2.8183829e-06 0.10905059 0 0 0
0.89 2.8183829e-06 0.10905059 0 0 0
0.89 3.1622777e-05 0.11162603 0 0 0
0.89 3.1622777e-06 0.11111111 0 0 0
0.89 3.1622777e-07 0.10812992 0 0 0
0.89 3.1622777e-08 0.11326078 0 0 0
0.89 3.1622777e-09 0.10620717 0 0 0
0.89 3.5481339e-06 0.1012505 0 0 0
0.89 3.5481339e-06 0.1012505 0 0 0
0.89 3.9810717e-06 0.097177419 0 0 0
0.89 3.9810717e-07 0.10620717 0 0 0
0.89 3.9810717e-08 0.1060789 0 0 0
0.89 3.9810717e-09 0.10508269 0 0 0
0.89 4.4668359e-06 0.10394843 0 0 0
0.89 5.0118723e-06 0.10380972 0 0 0
0.89 5.0118723e-07 0.12099214 0 0 0
0.89 5.0118723e-08 0.10074552 0 0 0
0.89 5.0118723e-09 0.10644314 0 0 0
0.89 5.6234133e-06 0.11068625 0 0 0
0.89 6.3095734e-06 0.10248134 0 0 0
0.89 6.3095734e-07 0.10637868 0 0 0
0.89 6.3095734e-08 0.10945674 0 0 0
0.89 6.3095734e-09 0.1000604 0 0 0
0.89 7.0794578e-06 0.10290557 0 0 0
0.89 7.9432823e-06 0.1069271 0 0 0
0.89 7.9432823e-07 0.10360814 0 0 0
0.89 7.9432823e-08 0.11668682 0 0 0
0.89 7.9432823e-09 0.10844588 0 0 0
0.8 1.1220185e-06 0.21523312 0 0 0
0.8 1.4125375e-06 0.21004016 0 0 0
0.8 1.7782794e-06 0.20814934 0 0 0
0.8 2.2387211e-06 0.22289157 0 0 0
0.8 2.8183829e-06 0.20835006 0 0 0
0.9 1.1220185e-06 0.10135272 0 0 0
0.9 1.2589254e-05 0.099153567 0 0 0
0.9 1.2589254e-06 0.096208148 0 0 0
0.9 1.2589254e-07 0.10727969 0 0 0
0.9 1.2589254e-08 0.092211461 0 0 0
0.9 1.4125375e-06 0.094681708 0 0 0
0.9 1.5848932e-05 0.096981891 0 0 0
0.9 1.5848932e-06 0.095890411 0 0 0
0.9 1.5848932e-07 0.10044373 0 0 0
0.9 1.5848932e-08 0.10514632 0 0 0
0.9 1.7782794e-06 0.093680598 0 0 0
0.9 1.9952623e-05 0.1016129 0 0 0
0.9 1.9952623e-06 0.092999798 0 0 0
0.9 1.9952623e-07 0.09752166 0 0 0
0.9 1.9952623e-08 0.098288016 0 0 0
0.9 1e-05 0.10222222 0 0 0
0.9 1e-06 0.094172212 0 0 0
0.9 1e-07 0.096246973 0 0 0
0.9 1e-08 0.10378117 0 0 0
0.9 2.2387211e-06 0.099193548 0 0 0
0.9 2.5118864e-05 0.10753121 0 0 0
0.9 2.5118864e-06 0.1047311 0 0 0
0.9 2.5118864e-07 0.098327624 0 0 0
0.9 2.5118864e-08 0.093516461 0 0 0
0.9 2.8183829e-06 0.094286291 0 0 0
0.9 3.1622777e-05 0.10078613 0 0 0
0.9 3.1622777e-06 0.098825435 0 0 0
0.9 3.1622777e-07 0.095688961 0 0 0
0.9 3.1622777e-08 0.096312714 0 0 0
0.9 3.1622777e-09 0.09548751 0 0 0
0.9 3.5481339e-06 0.10358726 0 0 0
0.9 3.9810717e-06 0.099535635 0 0 0
0.9 3.9810717e-07 0.099375126 0 0 0
0.9 3.9810717e-08 0.10257442 0 0 0
0.9 3.9810717e-09 0.10289972 0 0 0
0.9 4.4668359e-06 0.10308033 0 0 0
0.9 5.0118723e-06 0.10646005 0 0 0
0.9 5.0118723e-07 0.093397746 0 0 0
0.9 5.0118723e-08 0.094461229 0 0 0
0.9 5.0118723e-09 0.10259505 0 0 0
0.9 5.6234133e-06 0.091183575 0 0 0
0.9 6.3095734e-06 0.098750504 0 0 0
0.9 6.3095734e-07 0.097280967 0 0 0
0.9 6.3095734e-08 0.094442207 0 0 0
0.9 6.3095734e-09 0.097403904 0 0 0
0.9 7.0794578e-06 0.11113352 0 0 0
0.9 7.9432823e-06 0.10225898 0 0 0
0.9 7.9432823e-07 0.097703465 0 0 0
0.9 7.9432823e-08 0.10032297 0 0 0
0.9 7.9432823e-09 0.10002021 0 0 0
0.9 8.9125094e-06 0.098690836 0 0 0
0.95 1.1220185e-06 0.0632451 0 0 0
0.95 1.1220185e-06 0.0632451 0 0 0
0.95 1.2589254e-05 0.064301552 0 0 0
0.95 1.2589254e-06 0.058444176 0 0 0
0.95 1.2589254e-07 0.065847765 0 0 0
0.95 1.2589254e-08 0.068388138 0 0 0
0.95 1.4125375e-06 0.060044328 0 0 0
0.95 1.4125375e-06 0.060044328 0 0 0
0.95 1.5848932e-05 0.060948537 0 0 0
0.95 1.5848932e-06 0.060514066 0 0 0
0.95 1.5848932e-07 0.059903187 0 0 0
0.95 1.5848932e-08 0.065204266 0 0 0
0.95 1.7782794e-06 0.064074149 0 0 0
0.95 1.7782794e-06 0.064074149 0 0 0
0.95 1.9952623e-05 0.065454545 0 0 0
0.95 1.9952623e-06 0.062059238 0 0 0
0.95 1.9952623e-07 0.064366425 0 0 0
0.95 1.9952623e-08 0.066962485 0 0 0
0.95 1e-05 0.062096774 0 0 0
0.95 1e-06 0.067299919 0 0 0
0.95 1e-07 0.062297735 0 0 0
0.95 1e-08 0.064906269 0 0 0
0.95 2.2387211e-06 0.059927361 0 0 0
0.95 2.2387211e-06 0.059927361 0 0 0
0.95 2.5118864e-05 0.055387103 0 0 0
0.95 2.5118864e-06 0.066195762 0 0 0
0.95 2.5118864e-07 0.058479532 0 0 0
0.95 2.5118864e-08 0.059227815 0 0 0
0.95 2.8183829e-06 0.067485898 0 0 0
0.95 2.8183829e-06 0.067485898 0 0 0
0.95 3.1622777e-05 0.058835382 0 0 0
0.95 3.1622777e-06 0.066989508 0 0 0
0.95 3.1622777e-07 0.065821256 0 0 0
0.95 3.1622777e-08 0.066169054 0 0 0
0.95 3.1622777e-09 0.066881547 0 0 0
0.95 3.5481339e-06 0.062109296 0 0 0
0.95 3.5481339e-06 0.062109296 0 0 0
0.95 3.9810717e-06 0.060294414 0 0 0
0.95 3.9810717e-07 0.060306575 0 0 0
0.95 3.9810717e-08 0.064529139 0 0 0
0.95 3.9810717e-09 0.063181268 0 0 0
0.95 4.4668359e-06 0.066182405 0 0 0
0.95 5.0118723e-06 0.061401737 0 0 0
0.95 5.0118723e-07 0.062082912 0 0 0
0.95 5.0118723e-08 0.061845286 0 0 0
0.95 5.0118723e-09 0.06291591 0 0 0
